-13.852,122.98,121.17
-12.15,139.14,578.09
-5.9225,137.53,499.96
-30.133,111.32,357.85
-23.451,158.58,91.257
-18.121,156.84,264.15
-29.136,86.032,647.37
-46.075,112.68,48.312
-49.363,150.88,31.148
-12.07,145.23,488.19
7.2152,111.38,654.65
-12.625,148.76,262.58
-13.642,150.1,393.97
1.7811,123.75,646.7
-40.683,109.54,406.73
-3.3452,132.67,519.06
-5.5698,134.63,455.61
-29.433,110.61,79.329
-31.317,160.15,372.39
-18.934,147.34,513.36
-7.4411,137.44,28.201
-49.89,124.8,538.34
-34.427,160.58,366.22
-14.435,152.19,168.39
-51.692,142.2,451.86
-55.713,123.79,339.72
-32.606,97.252,535.95
-8.8345,131.32,80.18
-24.99,145.12,545.5
-8.9685,134.28,358.38
-23.244,148.13,515.57
-24.439,158.85,86.618
-9.1596,128.78,375.68
-59.212,135.52,108.63
-6.4027,137.82,525.68
-28.119,86.823,632.77
-56.733,131.24,20.926
-12.741,141.99,546.37
-10.765,139.92,235.96
-13.519,150.64,251.62
-13.03,118.9,56.434
-8.4382,133.64,622.29
-13.469,150.56,268.79
-31.977,114.15,272.19
-43.453,106.8,479.53
-12.336,110.38,463.33
-29.811,143.58,553.67
-57.897,143.27,356.89
-16.421,123.36,228.52
-15.445,150.76,4.6088
-34.212,103.19,472.37
-51.774,149.77,48.205
-40.34,101.23,534.95
-59.031,130.11,212.69
-47.065,112.49,20.055
-56.176,129.41,5.1167
-42.252,134.44,564.92
-2.2347,130.86,539.8
-30.185,111.34,357.36
-30.223,114.7,255.59
-23.159,111.86,68.503
-59.128,145.11,153.81
-3.7495,120.86,488.61
-58.703,143.62,334.02
-36.544,156.37,422.69
-38.127,114.29,218.34
1.7443,117.04,568.35
-8.841,129.25,69.505
-28.923,110.14,380.43
-8.4129,139.09,544.93
-27.059,115.75,240.07
-28.785,115.15,217.01
-44.65,109.8,621.37
-58.333,147.2,309.13
-37.043,113.5,294.2
-13.504,150.65,283.29
-8.43,106.05,516.43
-53.348,120.5,112.24
-34.889,112.69,319.52
-47.453,115.52,341.18
-54.35,121.74,344.91
2.2039,94.318,644.06
-45.284,112.23,49.402
-28.191,136.46,610.3
-18.103,121.47,219.61
-13.608,88.604,610.55
-23.767,111.01,58.915
-59.925,145.56,223.18
-32.554,111,94.273
-30.237,136.19,606.86
-16.42,153.32,69.332
-23.212,157.33,388.31
-38.631,112,346.01
-15.802,112.2,424.95
3.2124,103.85,612.74
-37.534,111.86,110.66
-50.262,118.06,315.44
-11.835,126.53,121.08
-48.725,126.32,548.01
-11.973,114.96,432.84
-12.136,130.44,197.14
-20.443,119.45,231.58
-39.211,161.61,335.8
-39.856,161.65,332.2
-55.132,144.14,399.6
-12.725,149.13,171.71
-2.3265,105.26,561.97
-42.362,110.64,46.181
-12.942,147.02,466.53
-56.198,136.14,14.585
-17.951,154.66,71.4
2.8277,119.67,591.51
-34.168,113.75,179.69
-55.808,139.04,20.647
-21.86,85.091,634.23
-20.696,157.95,333.54
-51.121,119.4,259.97
-47.298,153.51,401.47
-56.942,148.92,131.83
-35.939,159.38,384.17
-59.147,147,184.9
-11.707,146.25,196.26
-59.961,145.46,228.63
-5.9481,117.87,473.86
-57.468,145.78,108.44
-9.3296,139.3,105.8
-22.621,112.28,378.35
-37.537,114.23,215.55
-7.7632,124.2,422.31
-17.177,111.23,424.41
-53.353,120.63,335.12
-41.09,155.1,421.47
-26.762,112.54,349.99
-39.252,110.41,382.48
-46.917,158.36,113.26
-0.55568,99.926,598.92
-20.354,158.22,150
-7.3667,125.25,423.6
-46.943,137.45,517.96
-40.486,133.85,578.36
-54.804,151.8,334
-53.401,152.94,113.35
-52.689,120.56,176.98
-20.915,87.168,614.85
-19.425,156.44,356.58
-49.233,157.7,328.22
-11.418,132.41,272.84
-33.674,114.15,203.89
-56.226,125.89,40.348
-60.233,139.2,161.86
-11.223,146.49,96.909
-36.557,155.88,428.42
-43.861,154.65,27.937
-47.472,141.32,492.73
-7.8522,121.32,435.43
1.4643,124.22,644.26
-48.679,119.24,561.58
4.9692,118.08,641.89
-39.536,109.07,408.12
-15.201,87.186,618.42
-57.336,150.79,283.19
-44.793,115.89,235.89
-57.941,127.68,236.77
-4.1219,127.54,471.8
-18.555,116.97,106.52
-50.317,118.32,157.72
-9.6791,142.32,360.81
-58.643,135.72,85.05
-9.294,141.77,75.642
-57.608,129.34,380.07
-5.3478,135.38,559.56
-43.25,107.76,642.72
-57.828,127.47,248.25
-22.996,117.71,233.79
-56.546,136.53,414.67
-30.607,106.25,430.96
-23.117,157.2,390.06
-25.499,141.37,577.17
-21.656,109.99,29.515
-57.488,127.34,344.34
-16.609,121.9,167.93
-29.881,109.59,386.51
-14.005,102.6,509.65
-15.885,154.36,211.29
-34.914,156.17,428.52
-29.592,147.14,524.68
-39.47,163.63,269.35
-40.317,97.438,613.18
-39.694,114.39,204.2
-59.98,133.75,281.24
-54.909,143.9,38.586
-35.764,164.2,237.06
-52.121,119.56,321.14
-18.169,156.28,139.15
-32.927,96.599,544.4
-8.7953,129.32,68.714
-53.834,121.43,143.76
-45.336,144.23,489.09
-50.296,116.32,524.81
-19.352,115.76,96.643
-31.118,135.09,611.69
-54.124,142.37,423.96
-55.484,123.71,174.59
-23.357,159.63,328.66
-28.04,111.76,96.448
-60.497,139.7,278.21
-24.111,161.22,260.34
-58.118,134.11,382.54
4.245,117.21,612.59
-15.926,154.2,163.21
-55.212,123.33,171.57
-44.431,159.48,110.28
-50.767,117.26,369.96
-38.198,113.84,282.98
-52.781,149.39,58.253
-55.824,124.61,43.368
-6.396,116.5,475.6
-30.032,163.26,189.61
-10.691,144.53,124.53
-55.069,127.87,452.63
-23.259,157.16,54.359
-24.428,161.29,270.43
-52.823,123.94,494.16
-48.552,114.81,387.26
-46.942,112.73,31.112
-16.142,143.74,543.88
-33.981,144.7,535.5
-33.02,162.62,139.34
-26.006,114.17,135.73
-51.472,155.78,330.19
-13.868,109.33,461.16
-14.71,117.89,68.097
-53.005,134.88,472.63
-25.164,161.45,284.5
4.0466,117.5,609.38
-17.212,113.4,40.017
-57.385,126.67,210.63
-2.6329,94.602,613.24
-41.211,160.77,343.27
-18.603,110.41,12.67
-10.971,146.27,392.09
2.4339,117.78,579.34
-42.422,161.36,323.34
-30.036,114.37,182.72
-58.265,130.04,100.78
-6.1872,133.94,599.78
-54.038,148.48,381.3
-42.345,118.25,634.82
-35.599,163.61,286.95
-28.804,114.89,194.08
-27.83,112.35,107.55
-30.438,99.37,508.1
-31.513,102.96,470.34
-46.992,109.26,561.79
-49.734,114.88,19.927
-23.546,116.1,302.56
-7.2632,125.36,10.864
-58.423,133.99,372.9
-46.974,150.5,431.83
-14.048,151.51,319.14
-18.401,153.98,37.979
-20.379,135.05,632.65
-57.818,129.62,77.922
-25.902,158.89,376.2
-23.762,158.19,75.947
-45.458,162,198.7
-18.952,119.72,172.12
-9.5879,143.88,430.84
-10.2,140.21,307.28
-11.286,144.35,240.85
-50.428,155.56,347.64
-4.2974,133.48,577.39
-49.344,159.86,195.56
6.1119,100.39,651.25
-25.739,94.953,547.25
-10.803,145.6,439.92
-10.454,140.76,291.61
-10.765,145.47,443.82
-11.023,145.5,126.13
-30.423,112.26,117.9
-34.575,154.95,442.95
-12.043,147.97,49.097
-13.778,90.72,594.72
-45.012,115.97,241.66
-6.1967,132.68,618.01
-54.533,127.57,463.75
-27.412,113.87,318.5
-8.8891,141.44,53.819
-54.346,129.32,467.09
-43.592,114.97,173.64
-40.195,125.81,620.94
-14.798,150.36,10.102
-10.921,146.15,29.702
-53.054,119.44,56.239
-5.5914,134.69,455.3
-22.922,156.2,407.92
-34.224,99.854,512.02
-51.166,156.77,317.24
-6.0654,86.425,647.32
-58.574,149.36,243.79
-17.072,109.34,442.02
-40.611,114.64,247.89
-55.164,124.85,437.23
-47.816,151.91,26.918
-23.677,148.69,510.36
-17.898,111.34,418.71
0.01486,115.76,547.14
-6.6005,138.61,474.31
-41.269,156.98,45.052
-1.1686,96.517,611.56
-57.868,127.56,262
-52.637,118.5,446.29
-53.162,119.56,52.77
1.0302,116.87,558.39
0.43061,91.299,648.34
-7.8641,138.08,42.824
-37.851,151,473.03
-29.836,111.55,354.59
-16.851,99.081,525.2
-26.861,111.89,360.53
-58.027,131.03,74.308
-56.115,153.05,187.01
-14.412,150.93,50.539
-23.091,113.01,87.207
-14.541,151.2,389.84
-60.292,139.18,165.85
-46.965,116.79,253.87
-14.665,124.82,283.07
-18.892,116.35,100.67
-55.231,124.23,427.54
-58.673,129.36,276.57
0.2919,121.49,546.67
-30.321,144.45,545.82
-9.3095,143.38,442.27
-25.925,159.93,102.11
-40.627,112.9,124.01
-48.024,158.23,333.4
-35.631,109.36,389.62
-32.488,163.26,295.02
-41.59,130.86,587.42
-53.671,121.77,227.78
-53.311,119.83,59.718
-35.766,96.106,565.69
-23.517,113.58,353.45
-33.548,131.37,626.57
-26.431,115.13,168.65
-41.149,157.44,51.763
-46.506,160.79,166.6
-26.443,114.38,145.49
-8.7696,131.26,372.87
-13.526,101.65,518.41
-22.816,117.71,210.44
-0.49161,114.1,545.31
-12.104,103.16,514.45
-7.9493,128.71,399.81
-43.5,162.6,272.06
-59.567,131.61,218.39
-59.953,134.29,165.25
-55.748,124.08,386.86
-31.086,109.34,58.729
-35.569,105.22,450.34
-11.012,131.67,304.65
-55.18,153.57,295.45
-25.565,131.73,650.96
-10.28,106.23,504.14
-25.986,137.76,604.99
-42.795,114.07,143.33
-16.865,155.51,265.58
-54.812,136.25,443.77
-13.296,102.55,513.14
-25.21,138.53,600.14
-40.689,111.5,83.384
-19.553,105.83,461.19
-40.645,97.674,632.54
-4.2458,119.61,486.25
-1.835,126.99,516.4
-37.925,108.33,26.968
-10.69,135.42,282.04
-46.537,157.82,354.94
-39.096,107.59,3.2796
-42.591,142.46,516.39
-23.347,141.37,578.5
-41.288,107.81,440.68
-17.535,120.69,162.06
-54.58,155.32,198.11
-16.711,116.26,377.31
-7.199,137.47,554.75
-2.1575,121.18,509.16
-12.594,128.54,283.98
-13.427,150.46,252.41
-44.552,115.48,619.19
-39.106,149.79,478.94
-19.649,116.7,116.33
-24.39,159.92,335.77
-10.488,126.16,85.441
-41.404,99.698,584.75
-39.457,106.93,442.33
-13.434,150.51,330.73
-45.413,130.05,564.39
-41.581,113.69,142.67
-42.283,100.76,587.35
-42.387,159.84,101.28
-45.819,140.04,511.72
-58.555,148.61,275.36
-13.687,113.66,428.56
-49.666,154.27,372.58
-56.444,153.24,233.78
-49.929,152.31,55.286
-35.123,147.35,511.77
2.5318,110.81,586.62
-16.912,112.35,23.35
-29.964,129.31,654.18
-21.286,156.73,68.153
-55.82,153.96,253.23
-33.499,158.17,404.65
-26.442,161.9,171.72
-27.353,114.2,310.66
-15.036,86.667,622.69
-27.368,157.05,24.296
-24.409,109.32,406.54
-15.455,87.717,613.94
-56.191,138.07,23.556
-6.8183,125.47,1.6657
-29.091,106.27,1.0696
-3.9561,134.12,529.3
-47.569,117.01,267.18
-2.6424,123.62,498.91
-15.381,121.87,322.3
-25.732,162.11,230.63
-48.769,116.66,127.8
-42.986,102.09,572.06
-13.552,150.69,234.5
1.6779,97.004,627.82
-16.829,86.868,618.91
-7.9497,89.894,617.68
-45.106,117.07,609.76
-34.936,100.94,501.74
-10.099,110.87,475.75
-8.3574,101.85,541.82
-39.135,159.82,82.791
0.67866,125.07,646.94
-35.253,164.18,242.93
-9.5876,139.45,118.81
-37.684,163.07,303.57
-16.287,153.36,76.745
-21.542,159.51,182.73
-56.858,125.9,343.64
-47.916,130,543.58
-52.595,154.38,122.13
-58.958,141.71,339.53
-57.327,131.13,400.95
-10.322,96.6,565.42
-37.522,124.38,645.34
-16.409,121.67,156.76
-49.862,123.84,540.43
3.728,117.6,602.94
-43.297,112.69,639.06
-47.697,114.45,379.12
-54.832,142.58,413.49
-59.471,132.98,316.52
-12.94,149.69,329.99
-49.415,159.19,170.15
-30.847,150.32,494.73
-11.344,132.89,268.85
-58.472,129.02,293.86
-2.0094,127.51,514.32
-18.472,112.68,42.382
-12.484,148.43,405.94
-10.584,141.01,180.42
-26.871,157.64,404.02
-6.806,133.18,22.117
-12.771,147.46,452.28
-41.367,139.46,541.47
-56.442,126.1,51.338
-14.245,118.25,382.61
-29.673,113.16,321.35
-55.057,123.04,28.785
-33.2,161.79,115.02
2.7614,107.54,597.12
-12.761,149.36,351.12
-46.728,127.15,564.81
-59.782,144.9,276.37
-28.08,162.95,248.43
-48.996,112.14,502.95
-55,150.43,347.58
-39.376,98.782,562.63
-11.913,147.37,304.2
-33.208,107.87,409.7
-29.123,163.31,230.36
-46.892,157.87,103.92
-14.491,120.23,358.69
-58.911,132.05,114.4
-51.65,119.84,257.13
-58.308,128.61,292.64
-20.393,117.91,153.54
-17.493,155.68,141.63
-60.718,140.57,235.37
-52.613,144.96,10.293
-51.663,117.19,415.46
-12.664,123.1,98.559
-45.038,112.76,380.38
-58.054,128.06,295.72
-51.655,117.35,406.54
-58.747,139.64,98.593
-36.03,133.6,602.17
-60.588,139.35,192.16
-0.021423,121.85,541.6
-40.894,150.02,469.75
-43.799,160.46,332.06
-39.93,110.47,63.288
-49.961,113.83,492.93
-42.061,104.17,507.61
-15.957,147.13,499.89
-58.978,148.25,253.06
2.2047,111.43,581.6
-51.922,156.39,148.09
-14.003,126.81,217.12
-7.7318,137.31,42.783
-18.775,119.88,289.19
-17.792,114.95,66.929
-20.83,119.15,228.45
-15.647,122.51,155.28
-25.526,114.71,144.79
-53.175,130.28,483.96
-23.522,156.15,412.94
-44.11,151.72,439.24
-53.925,121.34,124.72
-22.532,108.99,20.236
-10.795,137.78,236.37
-20.635,119.3,233.81
-16.728,149.28,474.1
-23.861,107.82,9.5656
-52.764,118.71,419.31
-38.881,113.54,159.52
-40.446,111.74,91.683
-48.599,155.59,366.88
-52.672,157.48,252.99
-1.204,110.21,550.76
-15.57,153.48,130.5
-53.492,139.84,445.3
-43.367,115.12,188.75
-8.2723,117.43,451.82
-3.8328,120.39,488.87
-45.537,107.83,596.15
-57.195,131.56,405.77
-3.6806,115.08,508.86
-37.125,163.68,180.61
-33.254,161.38,104.52
-57.321,150.72,285.4
-14.715,151.81,80.57
-46.235,159.13,336.01
-57.093,138.06,45.084
-15.476,121.83,320.95
-22.924,87.547,612.69
-7.0775,137.4,425.27
-17.699,156.49,226.24
-18.629,118.2,328.45
-29.76,101.76,482.21
-40.584,114.59,208.15
-34.503,159.06,390.99
-60.568,136.34,214.72
-11.888,147.58,31.452
-44.718,112.61,620.74
-47.72,141.22,491.49
-10.429,136.08,166.82
-47.654,147.45,451.24
-54.546,155.69,237.76
-39.512,120.17,651.4
-51.35,119.21,297.93
-17.174,155.75,180.3
-38.9,156.87,410.04
-33.329,110.06,375.62
-16.448,117.36,367.47
-57.763,150.03,179.54
-25.17,107.31,427.12
-49.806,156.75,119.58
-4.2287,132.72,592.11
-58.493,129.16,158.73
-0.78264,126.28,652.6
-56.759,144.24,77.814
-53.805,121.53,303.59
-37.013,163.59,175.7
-22.012,159.53,298.96
-1.3007,126.07,525.15
-58.252,146.45,138.05
-54.2,142.7,16.032
-39.287,96.661,600.68
1.7072,122.13,577.36
-16.334,139.95,584.93
-48.502,157.02,107.19
-23.137,140.07,589.53
-36.741,95.694,579.71
-53.204,131.41,480.92
-8.2078,98.322,563.82
-52.92,147.17,36.611
-12.559,142.86,533.07
-48.239,154.88,70.733
-13.999,97.974,542.48
-1.2623,128.25,539.52
-14.868,114.21,414.26
-51.667,151.48,381.87
-1.3497,117.2,527.61
-33.438,130.47,632.62
-60.29,143.53,206.05
-9.9839,143.59,86.094
-22.351,88.444,604.17
-23.141,135.77,624.48
-0.69388,111.12,552.35
-16.354,123.33,213.08
-10.629,144.73,111.36
-5.9946,101.58,556.47
-4.5126,131.52,469.28
-4.1834,131.24,476.51
-29.792,114.78,257.49
-14.166,150.72,53.176
-44.362,115.66,621.07
-37.928,112.37,333.88
-14.333,91.316,589.1
-60.576,141.96,216.31
-11.898,147.64,329.49
0.32278,118.74,546.93
-43.759,114.31,630.66
-40.668,97.911,647.07
-15.814,103.71,493.78
1.5966,123.88,590.7
-59.582,146.38,203.94
-60.205,135.01,281.1
-49.745,159.26,281.39
1.5497,114.25,568.57
-49.351,117.96,278.76
-9.8625,140.1,327.18
-47.751,116.1,575.78
-29.26,158.81,54.67
-30.305,86.792,645.6
-11.289,125.99,101.78
-37.512,114.12,259.62
-42.835,115.22,225.32
-43.056,162.4,173.98
-15.605,114.67,39.195
-54.521,129.02,464.14
-48.106,160.9,244.31
-34.642,143.29,543.99
-25.654,115.45,291.9
-50.984,115.94,434.53
-16.782,152.63,409.2
-45.819,161.48,179.84
-6.632,98.736,569.12
-19.672,155.84,70.295
-37.009,113.32,301.47
-53.418,146.78,403.01
-48.755,114,551.35
-26.497,115.98,226.1
-25.639,162.05,242.39
-51.897,138.38,470.12
-56.497,146.57,359.65
-19.822,134.35,638.78
-23.284,155.64,17.369
-49.069,113.19,450.7
-9.4813,143.14,392.73
-20.415,114.53,88.29
-37.824,125.27,638.88
-12.996,125.95,144.86
-5.869,109.74,513.84
-20.29,118.88,180.73
-29.412,158.46,397.93
-43.114,157.48,383.6
-42.311,106.08,478.46
-43.909,159.62,108.53
-15.388,123.82,282.07
-57.427,127.05,335.67
-29.968,114.12,170.47
-43.097,105.5,498.25
-14.373,121.63,343.8
-22.415,157.89,366.78
-39.123,140.69,544.71
-10.857,146.01,381.9
-25.267,84.613,646.05
-8.5646,142.07,440.66
-56.324,124.88,163.36
-8.4948,102.04,539.97
-56.759,132.3,21.059
1.026,104.99,589.54
-39.619,162.4,144.06
-45.158,105.59,575.74
-7.9131,125.75,412.85
-21.408,158.68,322.27
-9.9362,138.31,142.21
-23.046,114.38,344.06
-1.4025,127.27,644.61
-6.0862,136.9,460.38
-53.569,121.55,269.88
-35.807,111.76,112.19
-33.059,159.07,391.6
-45.609,111.53,416.04
-60.32,135.81,280.1
-22.842,156.55,43.287
-52.933,119.52,76.188
-40.469,152.31,451.59
-46.032,122.96,585.13
-58.252,128.78,317.32
-25.377,160.04,344.34
-1.2865,99.909,594.09
-60.362,143.6,225.18
-20.645,111.21,40.023
-43.477,115.43,226.68
-45.529,116.16,216.5
-8.5702,140.05,389.24
-48.316,111.3,487.4
2.6179,122.72,636.03
-31.005,162.71,151.4
-52.523,148.79,397.17
-11.214,144.19,206.3
-55.06,154.6,191.82
-31.9,162.87,307.43
-27.465,114.14,148.59
-10.769,140.11,225.13
-31.059,93.491,571.65
-56.422,126.19,47.664
-10.148,143.41,488.6
-44.678,111.63,401.47
-22.284,106.69,442.91
-46.629,109.54,578.3
-43.472,152.22,438.19
-42.02,149.35,470.05
-3.0407,116.48,510.47
-12.542,127,312.12
-40.214,110.62,383.5
-18.225,119.02,139.01
-19.339,95.395,548.04
-26.431,158.96,71.669
-10.673,145.72,416.72
-57.035,126.08,251.39
-3.8119,130.2,481.79
-27.184,113.02,118.04
-16.871,112.32,416.28
-35.584,157.06,22.241
-47.54,160.62,281.51
-11.536,128.4,135.19
-42.395,102.15,551.56
-48.308,159.4,305.12
-22.557,142.59,567.89
-5.8692,125.92,444.63
-57.265,127.15,92.612
-45.14,115.03,313.94
-53.326,121.3,191.81
-55.876,135.95,5.982
-22.668,145.83,537.93
-58.183,128.47,151.72
-51.913,146.31,423
-35.115,162.45,132.43
-29.692,144.62,545.57
-25.032,160.81,145.79
-33.253,114.07,267.15
-21.96,160.01,250.98
-60.545,138.15,188
-36.209,102,493.93
-34.666,100.11,510.65
-53.066,130.34,485.38
-40.124,124.13,629.21
-23.304,151.07,483.41
-9.6827,140.39,117.79
-13.182,127.91,194.56
-23.065,160.68,207.93
-44.467,136.87,538.18
-12.95,147.43,457.06
-48.946,160.31,208.29
-9.1975,132.77,97.817
-27.675,115.16,272.54
-41.875,105.34,485.97
-2.5169,126.28,501.02
-6.2317,97,581.18
-37.301,157.99,400.8
-25.157,100.81,493.14
-17.353,151.92,434.18
-12.145,145.17,490.75
-21.244,147.98,513.33
-19.274,154.16,27.258
-16.019,153.11,76.875
-15.864,153.86,324.32
-18.022,154.95,80.571
-9.336,142.85,477.48
-58.531,148.2,175.95
-9.5887,142.73,490.78
-29.246,113.54,314.01
-27.293,157.39,409.52
-46.458,107.81,533.94
-60.171,135.5,291.52
-12.087,114.99,431.58
-28.312,144.61,547.66
-19.984,142.92,562.75
-35.505,163.61,287.14
-5.1575,110.03,517.98
-38.751,162.18,324.71
-44.058,114.06,627.54
-57.661,130.79,388.62
-12.659,149.2,107.28
-20.56,156.86,85.34
-46.649,161.46,198.86
-16.947,116.65,80.883
-27.03,108.39,409.34
-27.389,136.1,614.71
-57.367,126.69,156.81
-14.525,116.68,394.77
-56.843,151.39,172.17
-18.765,154.99,62.134
-37.45,158.64,391.52
-14.204,151.84,171.17
-7.4901,138,549.73
-8.5108,136.78,78.368
-39.127,110.12,60.202
-34.896,128.25,639.04
-11.225,140.5,554.69
-44.501,118.35,613.39
-9.6794,134.8,333.64
-32.446,102.36,478.51
-56.742,150.12,144.19
-3.1357,124.15,490.68
-12.676,126.62,313.61
-59.848,138.33,138.21
0.49426,121.24,549.93
-38.096,148.54,492.82
-34.737,163.87,189.59
-39.79,102.41,511.24
-58.473,149.65,231.12
-13.103,149.78,232.51
-38.556,103.25,489.99
-9.2119,142.94,466.65
-55.594,125.58,427.77
-47.094,150.1,434.36
-53.406,120.51,456.17
-28.76,147.6,521.54
-35.609,103.54,472.23
-38.403,113.22,149.57
-55.888,132.98,434.97
-41.852,112.04,364.46
-53.843,121.74,283.68
-37.682,107.43,8.8934
-9.081,139.33,92.724
-51.348,118.69,127.78
-27.432,88.445,612.76
-12.667,109.48,467.63
-10.692,145.73,18.322
-56.025,153.25,189.39
-9.6948,143.44,384.71
-31.756,114.49,244.87
-13.255,150.23,145.7
-56.917,141.43,60.069
-39.767,155.57,421.73
-57.169,127.51,72.76
-52.632,150.91,73.728
-48.501,158.13,128.23
-60.225,134.09,238.14
-28.535,161.02,344.05
-38.269,114.23,207.48
-18.21,118.29,124.52
-33.404,160.38,370
-21.506,115.52,339.15
-55.262,123.84,18.733
-60.539,139.7,187.74
-47.828,110.23,535.24
-25.002,137.16,611.14
-32.027,87.434,651.64
-45.837,116.15,266.5
-30.081,114.3,282.07
-13.54,150.72,291.61
-33.29,154.3,451.93
-8.7121,141.71,31.835
-30.822,98.547,517.39
-58.343,128.49,229.59
1.5156,99.971,613.53
-31.563,113.46,157.06
-12.094,126.18,123.39
-45.375,156.66,379.73
-8.47,121.77,425.23
-21.048,145.93,534.65
-47.604,110.63,557.3
-14.37,152.06,302.3
-18.317,153.02,11.351
-21.459,99.313,512.04
4.989,118.45,652.37
-19.274,157.98,246.92
-21.548,116.6,318.11
-53.657,153.02,337.5
4.1654,119.91,641.25
-23.573,151.02,484.58
-0.10445,127.45,587.38
-31.819,87.068,654.92
-59.414,146.18,277.09
-59.488,146.82,209.19
-47.669,110.29,548.49
-16.931,154.62,108.92
-15.272,152.7,97.036
-56.012,133.63,431.54
-23.635,112.81,364.5
-56.933,126.83,378.36
-54.214,121.3,79.486
-27.454,103.49,464.31
-53.413,147.76,395.32
-15.028,125.03,255.54
-13.48,107.47,477.19
-57.689,127.33,303.1
-50.033,141.5,471.32
-10.106,137.99,307.47
-7.85,136.2,53.524
-18.181,155.08,370.68
-49.616,117.21,124.77
-24.987,116.53,209.71
-9.452,131.09,357.01
-44.612,137.99,531.16
-47.787,117.28,221.71
-13.545,150.45,363.78
-22.964,117.46,263.9
-11.32,146.3,331.42
-33.639,106.09,434.66
-46.677,141.47,497.53
-46.115,126.39,573.03
-5.9773,113.8,492.69
-49.658,118.28,266.58
-4.9672,128.81,455.68
-12.202,148.37,375.85
-58.438,132.8,369.12
-26.403,160.87,126.97
-19.842,117.44,133.59
-12.013,115.35,3.9953
-42.839,105.4,646.45
-15.249,153.5,240.9
-55.432,123.37,122.56
-57.188,145.14,358.21
-33.942,161.25,100.84
-57.034,126.7,85.709
-60.466,141.51,269.2
-10.256,138.16,298.3
-12.163,148.27,339.16
-48.525,117.62,258.51
-52.719,130.81,488.96
-45.075,155.4,48.281
-50.925,118.6,144.67
-38.854,94.634,649.11
-42.228,114.82,192.31
-12.198,148.27,58.422
-41.088,114.2,170.81
-29.164,111.21,90.301
-57.394,140.41,64.86
-29.885,151.44,484.69
-14.048,125.86,281.34
-36.466,126.84,638.64
-51.667,119.9,215.22
-55.954,125.84,23.501
-56.015,134.84,5.0179
-46.636,141.67,496.63
-34.062,111.34,351.66
-42.992,107.49,646.76
-45.361,109.54,608.08
-9.2922,137.4,345.12
-12.939,149.66,106.86
-54.098,121.16,11.124
-33.395,162.6,320.72
-48.662,117.15,157.05
-23.525,146.02,536.77
-36.637,100.98,508.9
-38.798,155.2,4.3381
-54.947,154.5,278.7
-40.355,163.14,175.53
-24.001,158.81,90.948
-16.505,154.76,150.78
-10.707,139.28,252.92
-34.056,162.53,134.92
-31.434,113.93,174.31
-56.729,134.54,23.075
-12.175,146.08,472.11
-45.605,126.22,578.11
-46.969,113.79,65.01
-10.44,139.81,287.12
-14.89,152.93,271
-56.94,136.61,35.116
-33.006,163.87,263.41
-33.466,107.04,15.284
-9.6531,143.84,35.583
-60.284,143.59,206.71
-29.695,102.74,471.57
-29.701,110.68,81.427
-22.399,150.52,487.44
-19.176,155.75,372.63
-44.178,113.21,627.31
-41.955,105.06,491.42
-57.59,127.2,143.71
-2.7448,131.96,561.36
-34.377,139.65,570.3
-23.793,117.07,203.87
-9.8204,142.61,356.82
-46.806,143.27,485.63
-32.504,153.76,458.76
-52.57,120.4,171.93
-8.0607,141.17,473.66
-22.719,160.31,273.76
-20.002,154.56,26.895
-52.063,155.83,319.84
-23.521,160.9,201.59
-5.1969,101.63,560.87
-15.437,153.71,270.61
-4.32,103.34,557.35
-12.952,149.52,77.299
-34.739,126.44,650.26
-14.92,153.01,214.65
-0.1817,126.03,645.98
-32.256,159.68,381.8
-43.512,108.76,444.81
-55.573,123.77,162.18
-1.1783,94.65,621.14
-50.184,118.76,246.7
-16.154,154.7,254.01
-2.8917,131.75,523.35
-27.177,115.73,231.96
-36.239,140.5,557.9
-35.464,105.85,441.55
-28.234,140.35,581.4
-57.777,132.53,56.057
-42.717,110.75,44.996
-14.58,125.35,270.81
-60.4,142.5,263.35
-5.7026,135.96,463.69
-53.671,146.52,41.672
-47.742,136.5,516.65
-9.4561,133.82,344.65
-11.346,129.55,143.05
-55.36,141.39,412.89
-47.021,157.42,356.56
-57.907,143.4,355.83
-53.004,154.46,327.01
-48.729,115.22,70.234
-55.173,143.28,38.213
-7.2968,101.67,548.64
-52.968,157.06,262.19
-17.363,148.61,489
-46.05,108.2,499.07
-21.778,91.656,576.25
-10.959,143.65,178.79
-19.992,114.56,84.46
-41.343,107.03,453.73
-35.864,151.05,478.51
-33.528,113.35,160.64
-48.29,126.2,552.89
-24.826,86.444,626.14
-26.706,96.867,529.76
-8.6772,139.76,67.555
-43.499,162.48,277.89
-17.853,152.77,12.635
-23.583,116.1,158.59
-26.017,99.866,501.42
-11.646,126.69,118.02
-51.127,158.92,232.9
-11.645,147.2,116.97
-42.009,109.15,12.89
-4.7252,135.4,509.7
-13.573,148.86,435.23
-15.029,89.35,602.2
-58.903,130.81,320.75
-26.385,115.18,170.05
-15.039,151.73,57.469
-37.459,159.74,375.29
-11.04,146.23,366.98
-46.678,113.49,61.458
-21.54,135.97,624.3
-27.728,97.703,522.23
-55.245,123.07,337.85
-31.464,91.345,597.36
-26.357,160.04,353.35
-48.946,160.28,256.49
-13.94,151.42,272.99
-25.25,139.55,592.09
-50.238,148.57,421.89
-39.042,163.45,179.52
-11.761,132.06,216.1
-27.483,100.62,493.54
-33.983,134.79,603.44
4.7727,117.92,631.87
-10.715,140.4,551.64
-10.125,118.82,12.397
-53.844,121.6,300.72
-52.624,137.99,464.16
-28.836,114.11,300.58
-41.181,109.84,38.193
-36.5,107.73,20.914
-59.982,138.96,313.09
-6.2374,130.4,648.35
-42,114.57,179.2
-55.068,154.41,185.13
2.9242,121.88,616.63
-52.463,118.14,438.7
-50.203,138.77,484.54
-54.843,122.61,136.21
-12.621,126.82,312.34
-33.61,112.73,319.31
-34.345,106.11,435.49
-53.387,144.1,422.13
-57.61,127.06,230.23
-14.794,152.55,322.14
-11.483,145.19,234.4
-32.921,101.22,492.48
-27.31,156.74,18.193
-40.137,163.78,245.79
-51.897,119.86,178.73
-14.621,149.98,431.28
2.7633,121.1,598.95
-47.324,116.69,282.88
-51.234,119.56,240.98
-47.702,117.21,213.87
-3.6855,131.58,491.96
-50.931,117.9,105.25
-8.3285,137.58,381.39
-20.906,115.4,347.15
-1.2978,91.868,635.5
-6.3815,99.076,568.45
-54.675,122.11,407.84
-59.96,136.18,147.47
-45.392,155.67,391.58
-11.145,146.3,355.34
-42.514,163.13,205.31
-57.399,126.87,325.03
-11.564,95.614,567.22
-55.677,149.64,344.49
-11.665,147.16,124.62
-45.504,158.13,94.84
-9.804,140.46,332.81
-52.26,157.17,177.34
-19.317,156.98,124.81
-52.498,118.26,424.41
-11.542,146.37,155.89
-42.83,143.02,511.45
-17.688,155.57,122.5
-50.135,118.52,276.7
-47.379,124.97,565.81
-52.72,154.51,330.96
-42.862,102.48,555.79
-9.7855,132.19,342.1
-26.793,151.71,481.71
-47.061,110.32,471.42
-31.891,163.61,189.44
-11.541,146.81,329.13
-40.745,128.67,603.56
-9.3677,132.55,102.34
-14.656,152.05,102.55
-56.721,150.61,152.02
3.013,105.59,605.32
-3.8729,129.64,478.83
-2.8672,113.04,524.67
-20.238,158.49,286.26
-15.677,122.86,296.89
-60.111,144.52,253.8
-38.178,161.61,339.59
-42.699,107.46,651.44
-58.633,147.53,167.94
-31.173,162.14,130.52
-54.897,123.25,428.23
-17.079,155.71,189.5
-38.884,106.55,444.89
-47.215,118.52,581.99
-29.533,114.82,203.03
-20.803,156.14,388.61
-53.911,155.83,188.1
-40.946,161.43,331.43
-42.573,160.12,347.11
-58.239,129.73,105.09
-4.3337,129.52,645.08
-33.016,92.096,597.41
-10.841,145.77,86.998
-54.835,122.42,345.03
-22.807,159.3,330.54
-5.4322,136.68,508.48
-45.075,127.56,577.39
-20.385,158.83,261.4
-26.722,157.62,403.77
-4.9417,132.28,461.18
-10.725,138.63,249.86
-59.777,132.29,241.78
-55.798,124.19,190.07
-23.868,90.563,586.12
-30.701,146.94,524.83
-54.127,154.18,309.89
-7.2235,131.75,34.936
-22.191,86.934,617.62
-56.284,131.04,6.1223
-30.791,163.44,190.98
-11.721,146.9,153.81
-12.776,113.3,438.62
-26.768,161.38,141.32
-12.285,148.06,282.04
-7.8522,132.62,55.391
-32.84,105.02,447.33
-34.066,111.99,337.54
-25.691,115.28,297.15
-34.746,156.96,419.16
-3.7463,118.44,496.04
0.11845,122.31,544.64
-46.755,154.75,392.37
-47.336,160.14,300.63
-53.768,120.46,14.496
-53.569,156.33,268.74
-40.045,162.85,161.46
-17.132,122.47,217.82
-10.175,141.87,135.08
-43.708,159.91,343.24
-4.9541,94.826,600.03
-45.832,110.49,442.03
-47.798,114.25,60.859
-59.432,145.53,174.22
-51.267,119.1,514.98
-29.564,155.27,442.65
-16.463,155.1,243.1
-21.769,93.595,559.85
-17.752,153.67,401.3
-55.35,145.55,61.142
-49.051,160.18,203.66
-52.706,119.07,384.54
-11.319,132.77,273.31
-56.526,147.7,348.71
-7.2314,124.59,428.41
-39.291,95.532,634
-52.043,117.63,17.841
-10.689,122.41,391.54
-52.163,120.06,286.32
-21.014,117.96,293.55
-22.681,110.95,394.77
-50.532,116.07,406.15
-10.169,110.26,479.19
-60.626,136.65,231.56
-9.9667,132.23,120.53
-20.831,155.19,32.081
-59.919,133.16,270.36
-33.128,157.14,19.243
-21.43,157.99,106.7
-36.803,95.78,579.11
-50.944,115.52,472.25
-56.641,150.24,143.36
-56.328,132.7,8.1927
-30.071,104.82,448.28
-57.891,128.39,343.66
-9.7299,130.51,353.26
-7.9871,125.74,28.783
-58.403,130.83,356.49
-19.799,158.45,226.02
-18.353,108.47,442.93
-14.938,114.22,26.343
-17.343,152.91,412.63
-12.374,148.43,160.14
-25.852,114.44,141.17
-46.738,156.71,83.009
-16.98,116.6,80.601
-46.662,116.63,591.29
-34.234,160.62,86.69
-31.558,157.19,418.59
1.257,125.05,619.43
-56.446,140.32,42.337
-47.88,150.93,421.47
-14.562,125.92,241.1
-25.646,160.22,342.03
-33.823,109.92,378.04
-17.68,137.63,609.39
-30.068,110.77,367.55
-4.4754,103.23,556.93
-57.614,149.96,171.3
-23.996,160.32,144.94
-16.489,86.784,619.93
-9.6593,142.84,79.342
-49.506,113.36,516.55
-7.0279,129.95,414.19
-29.945,147.43,521.77
-52.746,120.65,180.43
-35.16,144.52,533.37
-50.042,118.32,538.69
-57.589,128.4,84.032
-48.521,116.76,563.72
-43.296,160.86,130.24
-16.571,112.08,420.56
-20.768,86.682,619.06
-19.977,154.35,417.1
-21.841,159.58,172.22
-25.093,161.56,187.86
-51.057,117.5,79.614
-49.868,154.82,88.744
-45.901,115.11,602.8
-47.469,116.66,290.13
-7.0583,136.23,574.45
-19.565,116.53,112.26
-50.881,155.83,118.97
3.7765,120.7,641.94
-27.125,110.53,69.017
-19.266,113.83,66.143
-12.794,149.1,239.46
-55.465,152.79,156.67
-32.35,161.17,100.41
-45.845,109.11,596.14
-13.82,120.33,85.286
-25.528,85.828,634.14
-48.053,112.82,562.34
0.029448,96.398,619.63
-22.294,107.84,431.24
-59.153,131.04,160.27
-51.154,119.01,300.63
-53.919,144.76,29.135
-6.0926,137.21,533.25
-7.3684,124.94,10.687
-28.164,155.82,434.16
-50.574,133.07,506.42
-40.276,163.54,266.44
-12.99,149.54,224.51
-33.975,133.77,609.89
-44.984,131.31,562.09
-46.63,113.19,591.85
-34.126,130.04,632.16
-45.572,111.69,28.506
-53.264,120.2,357.42
-53.576,129.62,479.3
-38.282,111.19,90.206
-22.581,160.45,230.42
-56.068,124.45,152.25
-8.7647,86.456,638.21
-26.385,115.91,208.33
-58.172,128.68,135
-30.772,112.98,138.19
-50.676,158.25,291.88
3.8294,111.7,600.81
-29.925,130.38,647.22
-24.446,161.25,187.35
-57.256,126.45,242.82
3.2789,108.11,600.98
-46.216,161.91,226.06
-18.308,156.34,323.41
-50.818,140.54,469.61
-21.362,145.99,534.62
-34.947,113.2,303.54
-47.102,109.24,506.24
-36.179,114.19,220.33
-35.236,113.17,155.76
-26.001,161.2,145.25
-18.294,119.06,141.02
-28.683,98.877,511.27
-36.585,159.79,376.65
-42.238,100.78,627.92
3.294,111.73,593.98
-23.733,161.08,249.7
-21.669,117.25,300.95
-56.82,125.93,353.73
-55.482,123.37,363.88
-60.244,136.77,295.46
-31.554,146.77,524.76
-5.0583,112.89,505.21
-5.736,136.62,537.98
-32.848,155.89,434.51
-25.776,113.68,335.01
-57.625,141.92,80.206
-8.0927,134.84,383.45
-17.256,153.71,390.18
-7.2472,127.58,22.071
-9.5862,131.26,101.98
-13.103,128.51,248.26
-28.874,158.87,57.14
-7.2583,85.68,648.28
-55.679,145.86,379.29
-8.7784,140.02,533.61
-6.4505,123.03,445.85
-35.393,111.21,99.113
-21.449,112.79,379.37
-50.901,151.39,390.87
-20.317,158.14,312.73
-6.827,136.51,7.3082
-35.757,164,197.75
-6.9662,128.89,20.443
-10.575,141.58,288.43
-60.707,140.34,245.68
-32.351,150.49,491.02
-49.513,118.16,192.52
-12.913,136.64,609.09
-29.698,92.268,580.04
-18.475,150.27,472.76
-22.338,147.86,517
-40.536,109.9,399.21
-10.246,138.85,299.29
-55.63,152.81,298.64
-50.593,156.24,121.9
-15.058,124.08,174.02
-48.629,123.15,556.89
-16.297,148.04,489.33
-59.752,141.34,145.74
-8.5979,130.26,380.67
4.474,112.64,609.1
-19.712,119.48,186.45
-51.774,151.13,64.221
-41.226,113.98,158.52
-4.7865,134.79,558.24
-14.552,152.35,163.25
-55.122,139.71,424.84
-59.464,132.99,141.82
-31.79,114.5,241.67
-0.8354,126.48,649.8
-11.708,135.42,617.76
-6.526,138.04,459.45
-48.837,156.09,95.823
-21.693,158.5,336.34
-58.239,139.78,368.08
-21.628,159.7,265.62
-12.087,128.84,300.01
-43.005,114.85,283.6
-24.094,115.46,311.86
-31.238,109.8,381.2
-51.867,157.27,291.63
-13.897,127.07,227.41
-60.22,136.51,295.81
-52.23,117.96,23.81
-52.079,118.35,483.48
-24.123,159.43,346.84
-28.909,161.87,135.92
-21.78,152.96,453.31
-56.207,140.65,39.289
-8.7301,141.84,486.98
-25.224,112.69,97.61
-52.495,125.7,500.49
-9.6464,134.43,336.11
-57.406,127.52,93.304
-27.378,115.63,222.37
-1.9012,128.9,525.01
-8.6625,133.47,625.7
-10.267,136.57,159.25
-31.561,107.52,414.19
-50.314,117.44,346.16
-57.142,131.77,34.353
-30.711,87.579,638.38
-46.549,109.44,579.84
-55.286,123.03,367.26
-39.452,114.09,182.99
-5.9345,135.71,452.01
-60.543,135.95,234.12
-37.607,103.59,480.03
-30.911,162.7,308.54
-27.526,107.98,26.744
-31.94,100.41,499.43
-52.421,118.11,428.67
-1.9882,90.852,637.6
-53.645,146.39,403.22
-40.5,99.694,563.68
-57.497,133.64,44.977
-41.163,118.48,644.66
-13.039,149.78,171.43
4.6977,119.03,650.94
-53.261,122.07,478.15
-50.488,117.85,122.74
-57.128,126.79,360.5
-37.59,163.07,156.42
-3.6937,99.848,579.27
-6.6366,99.231,566.23
-9.9882,137.7,145.44
-60.719,138.29,216.83
-54.577,121.88,366.25
-28.895,162.58,295.49
1.194,109.19,576.79
-30.91,113.85,293.77
-9.1982,129.42,79.633
-9.8398,137.56,321.43
-22.319,160.15,197.21
-7.7132,137.24,42.432
-1.6203,117.22,524.36
-52.959,145.85,24.069
-57.531,139.5,384.98
-47.244,119.28,580.55
-6.5885,137.93,529.52
-50.915,115.85,494.18
-51.042,149.41,34.472
-59.694,141.97,147.47
-55.69,124.03,55.035
-30.105,98.113,520.69
-60.288,143.23,263.23
-23.413,97.543,524.6
-55.351,123.48,165.11
-40.612,161.56,330.26
-16.254,108.46,454.07
-43.474,134.63,556.35
-11.486,146.96,348.47
-6.6218,132.38,16.624
-37.678,112.83,319.83
-40.83,156.21,30.608
-17.07,154.61,101.56
-28.013,91.141,586.87
1.6214,94.32,640.15
-50.485,118.41,305.14
-20.228,154.95,34.187
-40.837,104.71,485.95
-2.779,132.08,548.38
-48.443,157.57,340.01
-14.167,117.82,387.66
-32.463,129.66,641.83
-39.014,109.76,52.572
-54.381,148.83,77.286
-1.0173,128.48,608.55
-52.419,145.73,14.834
-47.19,160.9,184.14
-60.737,138.21,234.05
-50.672,115.52,500.7
-45.244,162.07,264.78
-24.979,160.8,313.4
-34.275,146.59,520.11
-34.992,164.03,200.99
-31.464,110.57,368.33
-52.487,119.53,111.57
-39.336,108.33,18.181
-42.832,159.4,96.052
-11.147,133.96,197.71
-45.172,108.27,477.6
-0.63486,127.76,615.84
-54.286,155.58,267.45
-29.756,114.92,221.38
-23.223,106.83,438.3
-14.859,124.94,270.44
-24.044,153.36,457.07
-38.181,163.05,158
-43.714,112.9,91.92
-29.178,89.989,602.41
-54.464,122.54,267.43
-46.058,138.28,519.91
-3.0896,130.81,607.73
-39.114,101.69,515.89
-42.713,101.73,623.65
-53.828,121.83,268.27
-7.1444,134.16,32.4
-53.949,120.82,422.77
-14.2,151.87,207.29
-47.612,109.86,511.25
-11.938,126.47,122.95
-26.043,96.546,532.59
-32.834,112.35,127.56
-39.709,162.96,163.24
-45.299,159.3,114.86
-56.527,138.49,408.14
-10.136,103.64,521.38
-36.939,109.68,387.12
-1.1264,127.98,624.98
-10.287,137.85,296.55
-42.35,112.81,349.76
-38.946,159.68,79.454
-51.016,120.66,524.21
4.1437,112.22,604.57
-22.47,135.17,630.01
-13.048,128.65,215.7
-36.091,164.04,260.45
-11.175,121.63,56.007
-45.343,148.75,456.72
-37.31,126.68,634.63
0.68344,120.81,552.74
-25.596,141.11,579.2
-42.41,101.2,628
-42.948,163.1,246.54
-19.389,145.24,538.28
-45.98,125.89,575.99
-59.173,138.69,109.73
-59.392,133.69,330.04
-56.426,127.93,415.74
-7.1504,134.41,32.125
-59.133,130.34,233.35
-17.103,149.22,478.14
-14.306,147.97,469.65
-59.683,133.15,301
-2.989,131.61,516.35
-15.46,153.8,228.15
-46.445,107.72,545.46
-26.086,96.439,533.6
-22.296,151.27,478.09
-44.354,104.34,593.6
-48.737,132.39,526.76
-14.919,152.62,125.31
-14.535,118.22,379.61
-51.056,155.6,339
-29.551,109.25,392.08
-32.155,162.64,316.22
-16.663,153.53,68.894
-14.983,152.84,140.91
-47.964,160.53,186.49
0.62304,123.4,557.87
-54.782,152.59,323.12
-14.892,152.96,259.75
-57.388,150.95,276.57
-56.906,126.15,98.793
1.0796,105.33,588.77
-35.519,100.32,511.74
-42.921,123.66,610.18
-49.473,113.37,518.8
2.0098,123.54,642.65
-21.622,138.54,602.92
-44.358,111.25,36.646
-39.554,149.58,478.92
-16.936,154.87,123.55
-54.476,122.64,229.58
0.0045646,112.47,555.15
-55.711,146.8,371.27
-7.9804,134.51,386.55
-39.892,108.57,418.53
-58.922,144.34,137.41
-52.422,143.88,434.24
-59.415,145.85,178.61
-55.665,140.91,410.9
-34.415,111.13,97.98
-13.295,150.08,366.18
-2.1337,123.05,507.29
-55.121,153.39,159.52
-50.105,151.87,51.836
-58.277,139.16,369.62
-37.895,93.256,649.04
-42.473,103,645.08
-17.717,112.3,410.52
-58.746,142.29,342.13
-47.245,159.59,143.6
-56.059,139.69,410.78
-15.818,154.08,165.65
-50.558,155.59,110.12
-47.151,125.45,566.58
-17.153,88.051,609.12
-56.736,150.49,309.45
-56.43,150.46,317.98
-8.4715,140.83,405.21
-34.387,106.1,435.7
-38.316,132.14,599.48
-15.253,148.18,477.51
-59.894,144.86,193.64
6.1421,113.31,638.61
-26.726,114.12,317.81
-39.31,95.381,646.47
-58.152,130.08,92.371
-50.747,118.37,319.27
-13.787,143.03,540.04
-38.251,98.97,547.2
-18.014,150.11,471.89
-7.303,136.61,28.577
-24.371,155.98,420.35
-5.1416,135.95,493.98
-12.419,117.89,36.705
-47.353,116.83,273.26
-2.5128,128.53,639.44
-30.121,110.96,88.415
-13.509,101.16,521.96
-33.331,112.75,319.21
-60.512,142.29,211.15
-45.684,114.63,118.83
-9.8778,143.32,84.58
-15.403,119.08,93.629
-13.929,125.79,287.91
-54.33,121.44,31.017
-2.4458,118.9,510.14
-18.013,148.83,490.03
-47.557,116.65,294.12
-31.598,104,458.36
-23.193,157.26,57.592
-6.6418,132.74,17.042
-21.158,157.77,104.56
-58.667,146.56,305.98
-56.675,151.39,295.02
-54.362,154.04,307.18
-37.264,129.32,620.65
-56.4,126.26,44.517
-12.266,147.77,242.19
-53.414,121.19,165.67
-22.011,117.7,280.1
-52.212,147.19,413.4
-29.825,102.88,470.08
-8.296,141.19,424.92
-34.955,163.16,155.68
3.3048,98.024,635.41
-18.089,156.45,156.98
-13.656,116.92,42.599
-21.248,159.21,287.42
-50.771,116.56,48.083
-46.519,117.55,592.08
-34.627,131.3,622.31
-9.0737,137.18,353.29
-19.541,112.25,45.914
-12.49,121.69,79.044
-37.704,157.06,29.181
-19.42,112.63,50.362
-1.3763,127.33,528.87
-49.673,115.45,397.51
-60.608,140.29,263.84
-35.44,163.69,178.38
-41.864,124.59,614.58
-49.226,116.92,332.7
-11.229,132.58,179.16
-57.891,127.58,237.19
-43.146,153.95,12.692
-57.074,131.19,33.108
-27.203,135.25,621.32
-33.799,145.96,526.28
-10.756,145.83,63.555
-37.294,108.21,412.6
-13.342,150.38,305.21
-17.85,117.17,100.32
-24.216,159.53,110.48
-3.1644,131.36,506.63
-57.738,127.93,113.98
-16.878,103.11,494.1
-20.938,113.55,77.537
-21.854,155.3,22.635
-48.161,125.43,556.46
-57.776,127.7,323.62
-11.633,126.06,110.65
-26.792,162.4,199.61
-48.842,160.49,239.6
-22.488,110.46,42.065
-14.265,126.17,204.69
-39.011,123.98,637.6
-11.646,140.66,555.81
-48.489,123.46,557.85
-20.568,119.35,235.06
-48.017,159.71,301.66
-17.991,153.08,418.83
-5.0828,131.99,456.68
-41.93,143.06,515.95
-12.031,130.54,191.53
-58.678,129.33,192.19
-37.537,100.75,517.25
-30.913,108.76,47.767
-45.372,105.86,559.48
-15.362,152.45,76.974
-24.318,107.33,4.2028
-28.192,93.794,560.89
-5.0475,94.459,601.69
-30.517,101.21,488.63
-43.238,113.93,637.45
-16.733,154.97,146.54
-21.452,141.69,575.46
-6.7242,135.57,425.06
-47.55,120.04,575.58
-14.236,121.77,111.46
-46.016,161.86,256.35
-34.288,147.01,516.71
-49.717,158.36,307.7
-10.917,134.32,183.73
7.1026,110.61,650.5
-49.326,115.58,383.25
-3.836,133.54,560.13
-19.794,158.43,245.43
-41.412,109.59,30.071
-24.261,156.73,34.78
-0.74308,100.51,594.92
-9.9173,138.26,317.87
-34.382,160.63,365.42
-42.409,109.96,654.26
-15.884,115.26,395.63
-14.147,151.23,87.541
-4.0527,129.13,474.05
-21.038,106.1,453.09
-60.43,135.69,261.96
-56.436,132.34,11.043
-14.518,122.43,126.94
-16.593,90.992,586.99
-49.722,115.46,45.777
-10.818,131.03,140.72
-18.394,156.28,330.43
-37.309,134.59,590.46
-43.462,112.51,83.688
-29.48,160.63,357.86
-8.9334,123.6,408.57
-10.657,142.06,286.46
-54.303,155.97,229.25
-15.739,106.67,471.25
-47.586,146.1,461.4
-38.378,163.6,279.48
-44.372,104.31,591.22
-14.127,151.61,135.5
-34.916,109.31,57.937
-40.066,163.82,222.36
-30.976,159.61,381.59
-50.735,155.26,348.12
-15.556,122.22,146.99
-9.9389,137.32,586.64
-49.298,113.06,521.42
-19.477,156.63,103.72
-27.815,154.39,451.98
-19.398,152.21,449.68
-47.138,145.68,467.51
-13.45,149.23,420.1
-39.761,108.66,416.38
-7.0179,135.28,24.217
-55.223,123.05,53.33
-55.443,124.27,21.194
-6.5172,138.38,508.5
-29.12,112.32,342.53
-38.342,162.57,143.03
-27.246,110.39,381.91
3.9385,103.64,620.17
-36.955,136.16,582.65
-13.621,136.41,613.63
-56.289,126.92,413.05
-27.806,156.51,11.932
-17.454,110.64,428.1
-13.126,147.66,455.42
-15.61,113.15,417.83
-55.789,124.25,234.55
-17.413,110.68,6.2269
-12.302,144.5,505.09
-12.669,149,64.524
-54.346,151.77,342.57
-43.393,157.27,384.76
-53.368,121.44,213.01
-51.362,119.44,182.46
-5.5476,135.58,560.03
-41.262,99.107,597.92
-39.079,113.79,291.39
-22.148,93.653,559.13
-26.891,159.76,363.82
-60.371,134.97,213.68
-5.2676,136.29,524.76
-38.095,138.97,560.24
-44.77,105.05,550.56
-24.233,160.17,324.81
-33.013,91.556,604.14
-30.77,163.54,262.64
-11.384,133.54,243.71
-5.2504,87.872,640.93
-7.6729,120.83,440.14
-9.825,135.32,326.34
-4.6313,129.84,643.28
-18.84,118.73,144.19
-31.953,163.44,283.13
-59.987,134.01,174.63
-20.523,151.17,472.1
-58.687,129.31,262.69
-10.709,135.56,279.29
4.2313,108.74,610.17
-11.201,134.32,247.63
-16.224,152.09,411.81
-23.162,159.8,140.77
-56.068,124.57,189.39
-9.7699,143.12,485.45
-15.803,113.39,414.16
-15.158,114.75,406.84
-16.82,155.41,188.82
-40.864,114.7,245.98
-41.665,161.74,319.67
-2.5737,103.91,566.39
-55.152,154.7,201.45
-47.221,116.07,314.08
-29.999,163.28,270.29
-47.304,117.02,241.41
-56.695,129.49,414.67
-60.477,142.39,207.28
-29.66,140.8,575.22
-31.714,111.61,348.58
-54.18,150.1,364.02
-51.846,117.48,27.309
-38.607,139.84,552.48
-44.749,162.03,277.56
-36.259,108.26,408.68
-29.958,157.41,414.72
-51.508,156.18,135.77
-9.1422,142.06,389.24
-59.555,132.11,286.87
-56.925,127.94,48.725
-30.014,90.55,599.61
-20.462,113.71,374.86
-38.168,109.2,399.57
-18.76,154.12,407.03
-54.974,123.09,183.48
-22.632,114.85,339.62
-47.294,110.1,484.7
-10.836,145.83,4.7764
-56.334,153.32,246.92
-28.209,110.38,70.737
-11.822,147.13,156.09
-51.613,117.61,492.75
-9.221,142.39,488.46
-38.307,102.33,501.02
-15.323,124.8,236.43
-14.354,115.19,31.099
-21.165,87.612,611.03
-50.535,149.71,31.398
-53.581,138.93,448.69
-59.051,144.29,141.61
-10.747,142.51,518.78
-32.594,92.536,589.5
-0.84003,123.34,528.68
-18.246,133.79,643.97
-8.0088,126.82,406.46
-34.221,111.69,111.69
0.32384,112.14,559.41
-44.591,111.32,34.816
-11.273,130.65,154.05
-44.551,115.76,213.03
-8.0885,139.64,527.93
-19.053,120.6,228.01
-22.612,117.4,277.01
-52.715,154.55,127.3
-47.053,132.64,540.15
-53.069,144.14,425.54
-46.302,119.91,590.31
-59.195,142.56,131.46
-34.233,113.27,301.51
-18.652,152.98,4.4884
-58.899,137.48,96.503
-10.517,138.9,277.92
-9.5049,131.94,647.19
-28.84,109.91,384.15
-22.676,117.9,229.09
-47.723,114.21,61.506
-27.695,106.42,0.21281
-39.993,154.19,435.47
-16.009,151.41,424.32
-34.805,114.22,236.98
-53.144,120.21,347.21
-41.572,154.07,429.99
-16.806,121.5,163.16
-47.354,113.59,49.577
-43.765,115.52,233.08
-35.025,161.65,110.88
-48.348,159.9,170.79
-44.471,158,368.21
-16.281,113.88,405.81
-21.525,158.66,326.56
-23.826,160.62,295.6
-41.555,100.09,578.82
-50.02,149.73,25.336
-5.7967,135.56,455.57
-38.978,113.09,317.35
-57.793,129.33,80.768
1.8209,111.91,576.24
-43.606,112.99,96.091
-11.549,130.83,292.04
-47.999,111.48,467.04
-53.141,152.94,346.64
-14.087,151.67,200.18
-13.529,150.58,107.8
-18.875,120.46,198.32
-10.381,145.24,416.99
-52.618,119.55,103.4
-11.46,146.76,338.26
-8.0679,98.59,562.86
-46.507,123.65,578.4
-58.264,149.57,195.89
-47.106,151.22,424.61
-31.781,112.65,325.31
-8.0985,131.69,60.425
-44.196,158.22,366.89
-42.867,148.15,475.25
-21.621,153.47,445
-54.671,146.53,58.343
-29.55,114.36,284.76
-7.2604,100.73,554.26
-46.81,147.68,455.47
-15.949,152.09,405.6
-8.7107,100.3,549.35
-34.264,160.31,80.203
-58.882,129.85,272.47
-6.1479,119.99,462.29
-55.448,123.77,38.566
-8.4915,135.56,79.354
-33.188,110.25,78.726
-50.181,159.54,249.41
-21.412,116.22,130.41
-23.298,116.87,179.43
-12.785,149.27,292.17
-17.451,154.24,379.04
-10.418,145.25,394.39
-8.5708,142.12,452.69
-51.341,119.28,291.89
-33.08,155.63,437.31
-55.009,123.15,185.95
-43.319,114.22,142.01
-11.768,140.89,553.65
-2.3195,96.9,602.74
-13.237,126.15,155.74
-52.309,119.47,119.38
-15.176,95.865,553.93
-20.355,152.96,444.82
-47.798,141.16,491.25
-58.725,129.34,218.63
-22.602,110.98,394.87
-45.362,113.17,76.054
-23.111,158.79,103.07
-36.936,91.887,653.75
-25.359,160.15,340.87
-56.563,150.91,307.52
-0.29895,127.45,611.77
-35.47,108.16,408.46
-18.584,157.07,289.89
-58.092,135.73,382.77
-59.278,132.9,329.04
-59.608,146.66,240.16
-14.382,152.03,144.62
-9.5204,125.82,386.17
-33.628,109.53,384.5
-45.905,111.61,418.81
-12.658,149.06,156.38
-10.373,141.65,153.35
-52.178,155.73,319.61
-20.633,112.72,385.77
-49.976,158.69,166.56
-49.358,118.23,232.07
-5.0059,135.15,482.55
-59.739,133.56,303.49
-59.335,130.91,221.93
-9.509,136.38,336.48
-10.426,122.52,51.398
-16.443,146.68,509.4
-49.354,156.01,100.74
-42.151,116.44,642.45
-38.213,121.68,654.08
-56.492,125.21,266.9
-14.203,126.15,198.99
-4.2571,111.48,518.61
-37.982,159.98,370.08
-32.869,113.9,182.16
-58.15,144.51,341.74
1.8141,120.53,573.12
-17.253,136.78,616.73
-28.444,159.11,64.015
-21.78,110.08,31.622
-20.243,115.03,94.566
-7.4346,132.7,42.553
-24.199,161.37,235.11
-33.98,158.35,41.967
-54.277,121.36,375.6
-9.3118,142.35,64.007
-43.281,137.06,544.56
-52.201,120.28,198.87
-58.237,128.32,194.52
-8.7136,134.46,614.05
-6.9485,96.559,580.33
-34.775,154.4,448.47
-46.713,111.03,445.84
-14.144,84.138,643.82
-60.179,141.59,170.68
-54.555,135.97,448.43
-41.016,145.69,502.42
-59.273,145.51,165.68
-41.238,157.45,52.326
-42.113,133.58,570.31
-12.462,148.35,258.99
-11.77,114.78,435.93
-45.567,115.42,606.87
-34.569,159.24,388.25
-5.0471,129.28,654.34
-32.973,163.45,172.37
-15.214,150.78,11.926
-43.205,162.63,186.38
-48.599,127.09,547.03
-2.2802,109.8,542.78
-38.543,161.09,106.39
-31.415,90.7,604.62
-17.484,120.75,162.24
-34.174,135.52,598.05
-6.8368,132.04,631.71
-53.717,130.96,474.67
-10.146,141.43,529.15
-22.601,115.29,125.57
-13.215,150.16,310.69
-6.1499,137.23,534.84
-26.442,101.67,483.63
-54.323,144.2,30.951
-54.065,122.55,455.91
-57.216,126.77,349.08
4.6408,115.78,615.72
-38.696,123.44,642.32
-46.5,113.16,391.74
-37.907,164.02,209.63
-34.701,150.23,488.76
-32.91,91.11,609.08
-38.582,148.84,488.62
-40.858,163.42,266.43
-38.051,161.84,121.98
-9.9984,138.42,313.72
0.55489,106,581.8
-22.966,159.51,132.48
-46.325,147.16,462.52
-7.2939,131.03,406.57
-14.237,151.84,308.22
-29.139,109.08,50.22
-58.94,133.02,106.32
-57.866,132,61.326
-57.003,135.06,31.966
-60.155,143.89,198.15
-1.4031,114.79,533.5
-34.531,163.93,194.44
-8.6658,97.893,564.33
-53.959,155.77,187.61
-7.0427,131.28,28.843
-16.335,123.24,204.91
-9.8188,141.14,119.09
-19.541,120.17,224.29
-9.9436,137.22,142.58
-47.442,151.48,419.85
-39.748,96.171,653.7
-59.509,144.48,297.44
-52.938,128.03,491.38
-42.245,115.06,228.46
1.788,109.95,580.64
-44.343,161.96,174.29
-22.202,159.71,165.92
-34.967,95.724,565.05
-42.344,111.49,380.78
-117.84,17.395,367.52
-134.29,29.537,5.8532
-93.169,59,460.08
-94.423,49.236,138.63
-141.41,55.155,301.38
-114.36,66.866,387.82
-102.75,58.099,586.01
-97.503,32.526,183.46
-143.79,40.704,145.86
-119.53,24.613,567.86
-123.89,19.728,464.17
-100.5,28.11,192.38
-143.2,35.464,166.71
-85.633,29.222,466.32
-115.72,16.221,418.24
-125.29,25.602,513.75
-110.6,66.85,283.24
-91.121,8.617,604.71
-119.52,19.49,528.37
-129.81,37.914,500.85
-114.83,67.549,102.38
-89.929,25.628,447
-86.102,55.748,514.46
-100.83,61.108,336.01
-115.5,23.61,602.01
-97.94,61.403,8.5528
-142.2,38.604,110.01
-127.77,22.79,455.41
-137.95,26.708,299.4
-84.705,6.7771,646.71
-102.64,63.599,389.38
-125.02,51.652,506.91
-92.609,60.311,532.12
-134.38,37.331,455.36
-110.61,17.046,52.012
-107.62,22.231,213.28
-89.931,48.083,401.82
-89.359,45.081,42.759
-111.1,55.617,569.68
-91.212,48.027,381.43
-104.34,24.61,229.93
-96.755,52.101,242.05
-101.72,11.185,640.29
-138.55,27.536,304.88
-111.03,37.113,649.58
-90.786,9.1214,596.08
-135.06,24.147,310.88
-127.81,39.645,517.81
-103.61,13.302,651.5
-112.55,67.482,306.34
-137.59,41.032,420.47
-94.806,54.812,87.584
-107.64,65.398,8.3758
-142.37,53.084,158.67
-127.69,24.812,479.53
-95.99,51.96,166.23
-76.451,27.368,544.32
-99.741,61.983,526.9
-132,42.11,478.64
-88.382,31.633,431.15
-70.998,41.5,583.02
-87.495,37.559,11.443
-125.54,39.104,537.01
-124.32,68.488,225.85
-121.3,32.431,571.67
-113.1,19.494,284.75
-136.69,49.716,413.09
-127.18,25.706,492.88
-93.931,30.526,373
-124.77,18.892,333.68
-91.803,59.036,593.4
-118.26,65.693,412.75
-88.614,33.694,421.2
-131.41,22.524,77.862
-133.94,63.164,142.77
-86.852,39.8,4.049
-133.82,25.409,58.612
-133.16,64.626,287.85
-84.956,16.405,542.78
-136.12,50.656,415.43
-78.421,41.459,516.05
-116.23,68.058,321.91
-108.97,66.217,78.782
-88.82,12.686,556.19
-102.44,11.833,533.36
-131.73,64.626,141.69
-92.411,42.438,348.59
-137.65,50.665,397.82
-141.15,57.542,212.08
-135.38,59.116,361.29
-81.067,26.731,512.27
-109.13,13.785,489.66
-134.26,29.454,428.12
-87.469,8.731,609.44
-85.171,57.604,593.39
-93.031,34.645,360.51
-141.72,52.499,134.56
-116.44,16.462,30.738
-108.9,20.148,649.71
-103.82,24.931,254.13
-125.44,61.734,428.9
-110.5,66.803,189.43
-94.999,39.791,286.95
-124.22,67.808,309.12
-109.35,66.327,172.11
-123.82,59.726,461.33
-120.04,35.126,582.82
-91.924,44.365,358.88
-135.85,60.877,128.47
-105.53,64.083,186.03
-134.09,64.496,262.33
-109.14,16.073,11.816
-113.5,17.876,354.67
-94.112,60.793,534.23
-107.83,56.448,579.7
-123.4,36.448,555.76
-99.524,62.339,422.81
-119.25,68.766,247.32
-110.74,66.897,324.01
-143.21,49.755,310.15
-109.31,66.237,217.1
-75.98,21.761,567.22
-137.88,61.633,234.94
-139,39.247,42.766
